15.5726900101 8.9284095764 -2.4990100861 -0.058843 0.998267 -0.001032
15.5949697495 8.9298000336 -2.4987199306 -0.078785 0.996891 -0.001050
15.6239404678 8.9326400757 -2.4991300106 -0.083307 0.996523 -0.001055
15.6419095993 8.9338302612 -2.4986500740 -0.061026 0.998136 -0.001034
15.6658496857 8.9351797104 -2.4984600544 -0.063217 0.997999 -0.001036
15.6978702545 8.9374504089 -2.4990699291 -0.085581 0.996331 -0.001057
15.7428398132 8.9425296783 -2.4999899864 -0.106419 0.994321 -0.001075
15.7524499893 8.9439697266 -2.5002000332 -0.083307 0.996523 -0.001055
15.7662000656 8.9450397491 -2.4996199608 -0.052343 0.998629 -0.001026
15.7775602341 8.9453897476 -2.4996299744 -0.020933 0.999780 -0.000997
15.8050403595 8.9455099106 -2.4996500015 -0.016879 0.999857 -0.000993
15.8523101807 8.9473495483 -2.4994699955 -0.081042 0.996710 -0.001052
15.8778200150 8.9502496719 -2.4995799065 -0.101730 0.994811 -0.001071
15.8954000473 8.9511995316 -2.4995999336 -0.052343 0.998629 -0.001026
15.9036903381 8.9512796402 -2.4999101162 -0.045917 0.998945 -0.001020
15.9388704300 8.9526300430 -2.4998300076 -0.039563 0.999217 -0.001014
15.9546098709 8.9533901215 -2.5001399517 -0.037461 0.999298 -0.001012
15.9880800247 8.9545402527 -2.4996600151 -0.037461 0.999298 -0.001012
15.9989500046 8.9549703598 -2.4994699955 -0.039563 0.999217 -0.001014
16.0324897766 8.9564304352 -2.4991900921 -0.029133 0.999575 -0.001005
16.0458393097 8.9567899704 -2.5000100136 0.002938 0.999995 -0.000979
16.0624408722 8.9564399719 -2.5005199909 0.006883 0.999976 -0.000983
16.0936603546 8.9567403793 -2.5006399155 -0.008867 0.999960 -0.000985
16.1143703461 8.9568996429 -2.5011599064 0.014865 0.999889 -0.000991
16.1206493378 8.9568395615 -2.5021700859 0.058843 0.998267 -0.001032
16.1297206879 8.9559602737 -2.5022900105 0.085581 0.996331 -0.001057
16.1613197327 8.9531602859 -2.5017199516 0.104070 0.994569 -0.001073
16.1688194275 8.9526195526 -2.5007400513 0.160219 0.987081 -0.001120
16.1711196899 8.9518699646 -2.4991700649 0.231726 0.972780 -0.001176
16.1851596832 8.9478998184 -2.4981100559 0.300017 0.953933 -0.001225
16.1913700104 8.9456901550 -2.4975299835 0.335625 0.941995 -0.001248
16.2128601074 8.9374504089 -2.4988899231 0.387428 0.921899 -0.001279
16.2182407379 8.9348096848 -2.4994099140 0.424733 0.905318 -0.001299
16.2455902100 8.9215698242 -2.5009698868 0.471891 0.881656 -0.001322
16.2508697510 8.9198904037 -2.5010900497 0.500299 0.865851 -0.001334
16.2633895874 8.9116401672 -2.4999499321 0.566240 0.824239 -0.001358
16.2735900879 8.9043703079 -2.5002999306 0.618487 0.785794 -0.001371
16.2839908600 8.8952598572 -2.5011599064 0.680398 0.732842 -0.001380
16.2888393402 8.8908195496 -2.5008900166 0.702951 0.711237 -0.001381
16.3115997314 8.8646297455 -2.4996900558 0.761293 0.648407 -0.001377
16.3137493134 8.8622798920 -2.4997999668 0.771254 0.636526 -0.001375
16.3284397125 8.8444499969 -2.4993600845 0.790530 0.612421 -0.001370
16.3413295746 8.8265695572 -2.5003299713 0.828486 0.560008 -0.001356
16.3482704163 8.8159599304 -2.5005700588 0.846861 0.531813 -0.001346
16.3580303192 8.7994203568 -2.5009200573 0.867668 0.497143 -0.001333
16.3655395508 8.7864103317 -2.5011799335 0.899331 0.437266 -0.001305
16.3711109161 8.7729196548 -2.5016300678 0.921899 0.387428 -0.001279
16.3761005402 8.7616300583 -2.5013599396 0.925729 0.378186 -0.001273
16.3895702362 8.7264204025 -2.5015699863 0.954848 0.297091 -0.001223
16.3903007507 8.7230100632 -2.5020999908 0.966452 0.256844 -0.001195
16.3972301483 8.6955099106 -2.5031700134 0.979409 0.201881 -0.001154
16.4012107849 8.6782398224 -2.5031099319 0.983039 0.183394 -0.001139
16.4017200470 8.6676902771 -2.5018000603 0.998513 0.054502 -0.001028
16.4009208679 8.6638698578 -2.5016100407 0.999217 0.039563 -0.001014
16.4009494781 8.6310195923 -2.5016899109 0.999575 -0.029133 -0.001005
16.4011592865 8.6268100739 -2.5015099049 0.998513 -0.054502 -0.001028
16.4001293182 8.6085395813 -2.5010700226 0.992979 -0.118289 -0.001085
16.3982505798 8.5976400375 -2.5007200241 0.981537 -0.191268 -0.001145
16.3937892914 8.5785903931 -2.5004599094 0.972119 -0.234487 -0.001178
16.3906898499 8.5661497116 -2.4999799728 0.969369 -0.245605 -0.001186
16.3844509125 8.5418701172 -2.4997398853 0.953006 -0.302950 -0.001227
16.3819808960 8.5346803665 -2.4989700317 0.933019 -0.359825 -0.001263
16.3768806458 8.5235004425 -2.4991199970 0.897798 -0.440405 -0.001307
16.3750495911 8.5212802887 -2.5003199577 0.891519 -0.452981 -0.001313
16.3624095917 8.4984197617 -2.5003700256 0.854638 -0.519223 -0.001342
16.3605003357 8.4949302673 -2.5006799698 0.846861 -0.531813 -0.001346
16.3443508148 8.4716997147 -2.5030200481 0.819933 -0.572458 -0.001360
16.3422698975 8.4680500031 -2.5034201145 0.808912 -0.587928 -0.001364
16.3258209229 8.4457397461 -2.5019500256 0.802126 -0.597153 -0.001366
16.3149890900 8.4327001572 -2.5011599064 0.804402 -0.594083 -0.001366
16.2977199554 8.4079904556 -2.5009799004 0.817758 -0.575560 -0.001361
16.2869491577 8.3929996490 -2.5004999638 0.806665 -0.591008 -0.001365
16.2667198181 8.3663702011 -2.5017199516 0.797530 -0.603278 -0.001368
16.2595500946 8.3576803207 -2.5017299652 0.802126 -0.597153 -0.001366
16.2342205048 8.3224296570 -2.5009500980 0.826370 -0.563126 -0.001357
16.2274093628 8.3114099503 -2.5010700226 0.813364 -0.581753 -0.001362
16.2203006744 8.3032798767 -2.5011899471 0.790530 -0.612421 -0.001370
16.1974792480 8.2730398178 -2.5008099079 0.802126 -0.597153 -0.001366
16.1896705627 8.2611598969 -2.5009200573 0.804402 -0.594083 -0.001366
16.1678791046 8.2323598862 -2.5011498928 0.790530 -0.612421 -0.001370
16.1624393463 8.2267303467 -2.5014500618 0.795211 -0.606331 -0.001369
16.1458396912 8.2044000626 -2.5017800331 0.783405 -0.621510 -0.001372
16.1353397369 8.1916198730 -2.5020899773 0.781002 -0.624527 -0.001373
16.1300201416 8.1851997375 -2.5016999245 0.783405 -0.621510 -0.001372
16.1022796631 8.1478300095 -2.5006299019 0.790530 -0.612421 -0.001370
16.0962505341 8.1406602859 -2.5003399849 0.773712 -0.633537 -0.001374
16.0902996063 8.1329002380 -2.5005500317 0.768784 -0.639507 -0.001375
16.0812397003 8.1239700317 -2.5008599758 0.756234 -0.654300 -0.001377
16.0386295319 8.0658502579 -2.5002999306 0.804402 -0.594083 -0.001366
16.0277099609 8.0516300201 -2.4995200634 0.776155 -0.630540 -0.001374
16.0254993439 8.0499095917 -2.5000200272 0.773712 -0.633537 -0.001374
16.0035800934 8.0239095688 -2.4995501041 0.763803 -0.645448 -0.001376
15.9896001816 8.0081195831 -2.4999599457 0.763803 -0.645448 -0.001376
15.9857597351 8.0027303696 -2.4998600483 0.773712 -0.633537 -0.001374
15.9610996246 7.9712700844 -2.5004899502 0.776155 -0.630540 -0.001374
15.9582595825 7.9679999352 -2.5009000301 0.771254 -0.636526 -0.001375
15.9261198044 7.9298501015 -2.5010199547 0.790530 -0.612421 -0.001370
15.9127998352 7.9114198685 -2.5013499260 0.753685 -0.657235 -0.001378
15.8526201248 7.8489098549 -2.5011999607 0.751123 -0.660161 -0.001378
15.8347702026 7.8279800415 -2.5012099743 0.766300 -0.642481 -0.001376
15.7987298965 7.7813401222 -2.5005600452 0.745961 -0.665988 -0.001379
15.7936697006 7.7765598297 -2.5002799034 0.722131 -0.691755 -0.001381
15.7638998032 7.7445101738 -2.4989900589 0.745961 -0.665988 -0.001379
15.7534999847 7.7315697670 -2.4992001057 0.751123 -0.660161 -0.001378
15.7411499023 7.7172698975 -2.4991199970 0.732842 -0.680398 -0.001380
15.7145299911 7.6913199425 -2.4987399578 0.719425 -0.694569 -0.001381
15.7105903625 7.6869602203 -2.4982500076 0.722131 -0.691755 -0.001381
15.6849203110 7.6591901779 -2.4987699986 0.724826 -0.688930 -0.001381
15.6794595718 7.6536002159 -2.4981698990 0.719425 -0.694569 -0.001381
15.6488704681 7.6225500107 -2.4994900227 0.732842 -0.680398 -0.001380
15.6325101852 7.6037697792 -2.4990100861 0.724826 -0.688930 -0.001381
15.6199197769 7.5916900635 -2.4995300770 0.705724 -0.708486 -0.001381
15.6045303345 7.5761299133 -2.5003399849 0.705724 -0.708486 -0.001381
15.5949201584 7.5668501854 -2.4999499321 0.700167 -0.713977 -0.001381
15.5709695816 7.5434699059 -2.4999599457 0.716707 -0.697373 -0.001381
15.8964395523 6.9322900772 -2.4981100559 -0.081042 0.996710 -0.001052
15.9017000198 6.9332499504 -2.4978098869 -0.081042 0.996710 -0.001052
15.9128904343 6.9337100983 -2.4976201057 -0.061026 0.998136 -0.001034
15.9394798279 6.9356598854 -2.4968400002 -0.067624 0.997710 -0.001040
15.9705095291 6.9374399185 -2.4965600967 -0.039563 0.999217 -0.001014
15.9999399185 6.9381399155 -2.4968900681 -0.020933 0.999780 -0.000997
16.0048809052 6.9380598068 -2.4970901012 -0.022971 0.999736 -0.000999
16.0179805756 6.9379501343 -2.4972000122 -0.018902 0.999821 -0.000995
16.0405101776 6.9390101433 -2.4967100620 -0.045917 0.998945 -0.001020
16.0638103485 6.9404001236 -2.4965200424 -0.072063 0.997400 -0.001044
16.0972595215 6.9432997704 -2.4954299927 -0.108776 0.994066 -0.001077
16.1226806641 6.9466300011 -2.4955399036 -0.115898 0.993261 -0.001083
16.1491107941 6.9487800598 -2.4968700409 -0.058843 0.998267 -0.001032
16.1581592560 6.9489898682 -2.4971799850 -0.031203 0.999513 -0.001007
16.1961708069 6.9499201775 -2.4986999035 -0.035367 0.999374 -0.001010
16.2194690704 6.9508800507 -2.4991199970 -0.035367 0.999374 -0.001010
16.2351398468 6.9507398605 -2.4987299442 -0.033281 0.999445 -0.001009
16.2603397369 6.9518499374 -2.4991500378 -0.029133 0.999575 -0.001005
16.2778301239 6.9521298409 -2.4990599155 -0.016879 0.999857 -0.000993
16.3144607544 6.9526801109 -2.4982900620 -0.014865 0.999889 -0.000991
16.3243999481 6.9532399178 -2.4974899292 -0.010858 0.999941 -0.000987
16.3561000824 6.9532599449 -2.4976201057 -0.004907 0.999987 -0.000981
16.3624000549 6.9534401894 -2.4974200726 -0.004907 0.999987 -0.000981
16.3893394470 6.9537200928 -2.4975500107 0.027071 0.999633 -0.001003
16.3958606720 6.9527201653 -2.4973599911 0.033281 0.999445 -0.001009
16.4271392822 6.9513301849 -2.4978799820 0.037461 0.999298 -0.001012
16.4404296875 6.9500198364 -2.4988899231 0.029133 0.999575 -0.001005
16.4863796234 6.9497799873 -2.4991099834 -0.012857 0.999917 -0.000989
16.5248298645 6.9516501427 -2.4995400906 0.018902 0.999821 -0.000995
16.5268096924 6.9525399208 -2.5002501011 0.033281 0.999445 -0.001009
16.5370693207 6.9516100883 -2.5005700588 0.087863 0.996132 -0.001059
16.5706691742 6.9484000206 -2.5009899139 0.063217 0.997999 -0.001036
16.6012592316 6.9474000931 -2.5007100105 0.048051 0.998844 -0.001022
16.6179904938 6.9461398125 -2.5000300407 0.074296 0.997236 -0.001046
16.6564807892 6.9434299469 -2.4985499382 0.037461 0.999298 -0.001012
16.6907196045 6.9430499077 -2.4978699684 0.000978 0.999999 -0.000978
16.7259693146 6.9432301521 -2.4994900227 -0.006883 0.999976 -0.000983
16.7275390625 6.9438300133 -2.4997000694 0.050193 0.998739 -0.001024
16.7339305878 6.9423799515 -2.5004200935 0.099398 0.995047 -0.001069
16.7645092010 6.9397401810 -2.5005400181 0.083307 0.996523 -0.001055
16.7888507843 6.9377899170 -2.5001599789 0.074296 0.997236 -0.001046
16.8233699799 6.9355301857 -2.5010800362 0.056668 0.998393 -0.001030
16.8497104645 6.9342498779 -2.5002999306 0.039563 0.999217 -0.001014
16.8729000092 6.9337501526 -2.5001199245 0.054502 0.998513 -0.001028
16.8864498138 6.9326000214 -2.5000400543 0.081042 0.996710 -0.001052
16.9007205963 6.9309101105 -2.5000500679 0.083307 0.996523 -0.001055
16.9345493317 6.9284701347 -2.5004799366 0.101730 0.994811 -0.001071
16.9447708130 6.9276800156 -2.5000998974 0.130369 0.991465 -0.001096
16.9592609406 6.9252600670 -2.4999198914 0.140185 0.990125 -0.001104
17.0223999023 6.9189600945 -2.4998400211 0.052343 0.998629 -0.001026
17.0438709259 6.9184899330 -2.4996600151 0.045917 0.998945 -0.001020
17.0459709167 6.9182801247 -2.5004799366 0.115898 0.993261 -0.001083
17.0630302429 6.9155998230 -2.4999001026 0.135260 0.990809 -0.001100
17.0831394196 6.9134402275 -2.5001099110 0.125512 0.992091 -0.001091
17.1052303314 6.9091601372 -2.5008599758 0.199215 0.979955 -0.001152
17.1313991547 6.9032402039 -2.5008099079 0.251210 0.967932 -0.001191
17.1380004883 6.9021201134 -2.5002200603 0.282560 0.959249 -0.001213
17.1441001892 6.8999500275 -2.5004498959 0.329630 0.944109 -0.001244
17.1685009003 6.8903799057 -2.5004100800 0.387428 0.921899 -0.001279
17.1907501221 6.8809099197 -2.4985899925 0.490829 0.871255 -0.001330
17.1916694641 6.8796401024 -2.4979898930 0.497143 0.867668 -0.001333
17.2173595428 6.8632998466 -2.4967799187 0.572458 0.819933 -0.001360
17.2216606140 6.8607401848 -2.4962899685 0.584843 0.811146 -0.001363
17.2398109436 6.8464598656 -2.4970700741 0.651358 0.758770 -0.001377
17.2469596863 6.8402099609 -2.4969000816 0.674661 0.738126 -0.001380
17.2626304626 6.8245100975 -2.4995000362 0.763803 0.645448 -0.001376
17.2664699554 6.8197898865 -2.4992198944 0.778585 0.627537 -0.001373
17.2755107880 6.8066401482 -2.4997000694 0.832674 0.553762 -0.001354
17.2857208252 6.7902297974 -2.4996600151 0.860313 0.509765 -0.001338
17.2956695557 6.7742099762 -2.4992899895 0.864020 0.503455 -0.001335
17.3065299988 6.7500901222 -2.4988799095 0.903843 0.427862 -0.001300
17.3092193604 6.7445502281 -2.4981999397 0.912475 0.409130 -0.001291
17.3195400238 6.7222399712 -2.4989600182 0.923189 0.384343 -0.001277
17.3275794983 6.7000298500 -2.4999299049 0.941995 0.335625 -0.001248
17.3313903809 6.6886501312 -2.5000500679 0.947186 0.320681 -0.001238
17.3372402191 6.6722397804 -2.4997100830 0.962562 0.271059 -0.001205
17.3396606445 6.6563501358 -2.5000998974 0.989041 0.147635 -0.001110
17.3404598236 6.6485300064 -2.4999399185 0.993804 0.111142 -0.001079
17.3425006866 6.6288599968 -2.5004799366 0.997066 0.076536 -0.001048
17.3435497284 6.6048498154 -2.5008599758 0.999995 0.002938 -0.000979
17.3431301117 6.5939898491 -2.5009000301 0.999131 -0.041673 -0.001016
17.3418102264 6.5716300011 -2.5002501011 0.995927 -0.090153 -0.001061
17.3406105042 6.5580101013 -2.4996800423 0.993261 -0.115898 -0.001083
17.3374996185 6.5402798653 -2.5009400845 0.980491 -0.196558 -0.001149
17.3346805573 6.5275402069 -2.5012800694 0.970072 -0.242814 -0.001184
17.3294906616 6.5096001625 -2.5000300407 0.953933 -0.300017 -0.001225
17.3251094818 6.4948000908 -2.4995601177 0.947186 -0.320681 -0.001238
17.3201999664 6.4834098816 -2.5000998974 0.919277 -0.393609 -0.001282
17.3160495758 6.4739799500 -2.5006299019 0.900850 -0.434129 -0.001304
17.3105297089 6.4636898041 -2.5010700226 0.858436 -0.512919 -0.001339
17.3071708679 6.4587101936 -2.5009899139 0.828486 -0.560008 -0.001356
17.2992305756 6.4475698471 -2.5010099411 0.802126 -0.597153 -0.001366
17.2878704071 6.4330301285 -2.5010299683 0.788169 -0.615457 -0.001371
17.2805995941 6.4242000580 -2.5031399727 0.785794 -0.618487 -0.001371
17.2644596100 6.4033699036 -2.5061700344 0.766300 -0.642481 -0.001376
17.2583503723 6.3980197906 -2.5066699982 0.753685 -0.657235 -0.001378
17.2423591614 6.3798198700 -2.5018999577 0.716707 -0.697373 -0.001381
17.2373790741 6.3745298386 -2.4991099834 0.694569 -0.719425 -0.001381
17.2188796997 6.3576002121 -2.5002200603 0.702951 -0.711237 -0.001381
17.1822700500 6.3177099228 -2.5007400513 0.743362 -0.668888 -0.001379
17.1722202301 6.3054399490 -2.5003499985 0.745961 -0.665988 -0.001379
17.1568107605 6.2895398140 -2.5009698868 0.738126 -0.674661 -0.001380
17.1380805969 6.2682700157 -2.5013799667 0.740750 -0.671779 -0.001379
17.1269207001 6.2564401627 -2.5009999275 0.722131 -0.691755 -0.001381
17.1112594604 6.2403898239 -2.4999101162 0.713977 -0.700167 -0.001381
17.0901298523 6.2188200951 -2.5005300045 0.722131 -0.691755 -0.001381
17.0773200989 6.2044000626 -2.5014400482 0.730182 -0.683251 -0.001380
17.0592498779 6.1849498749 -2.5016601086 0.711237 -0.702951 -0.001381
17.0494403839 6.1752400398 -2.5014600754 0.711237 -0.702951 -0.001381
17.0406208038 6.1671099663 -2.5017700195 0.694569 -0.719425 -0.001381
17.0158500671 6.1425199509 -2.5017900467 0.694569 -0.719425 -0.001381
17.0032100677 6.1304101944 -2.5018000603 0.711237 -0.702951 -0.001381
16.9858798981 6.1138200760 -2.5026099682 0.716707 -0.697373 -0.001381
16.9619007111 6.0872402191 -2.5021200180 0.738126 -0.674661 -0.001380
16.9562301636 6.0811100006 -2.5019299984 0.716707 -0.697373 -0.001381
16.9406604767 6.0662698746 -2.5030500889 0.700167 -0.713977 -0.001381
16.9314498901 6.0582098961 -2.5026500225 0.708486 -0.705724 -0.001381
16.8987503052 6.0243501663 -2.5021901131 0.648407 -0.761293 -0.001377
16.8768005371 6.0047798157 -2.5030999184 0.671779 -0.740750 -0.001379
16.8439407349 5.9744801521 -2.5037200451 0.697373 -0.716707 -0.001381
16.8360996246 5.9671301842 -2.5033199787 0.694569 -0.719425 -0.001381
16.8255691528 5.9560399055 -2.5028300285 0.705724 -0.708486 -0.001381
16.8102893829 5.9409298897 -2.5021400452 0.686096 -0.727510 -0.001380
16.7737598419 5.9076099396 -2.5018599033 0.705724 -0.708486 -0.001381
16.7586593628 5.8917698860 -2.5023798943 0.671779 -0.740750 -0.001379
16.7212104797 5.8622698784 -2.5006999969 0.651358 -0.758770 -0.001377
16.6856899261 5.8273801804 -2.5006101131 0.713977 -0.700167 -0.001381
16.6524600983 5.7978100777 -2.5011401176 0.677534 -0.735490 -0.001380
16.6511993408 5.7955799103 -2.5010499954 0.674661 -0.738126 -0.001380
16.6261291504 5.7727098465 -2.5012700558 0.642481 -0.766300 -0.001376
16.6020603180 5.7529501915 -2.5017800331 0.642481 -0.766300 -0.001376
16.5898609161 5.7421798706 -2.5023899078 0.648407 -0.761293 -0.001377
16.5630493164 5.7187600136 -2.5034000874 0.633537 -0.773712 -0.001374
16.5465202332 5.7061100006 -2.5039100647 0.642481 -0.766300 -0.001376
16.5449695587 5.7044901848 -2.5044100285 0.627537 -0.778585 -0.001373
16.5005798340 5.6669301987 -2.5035300255 0.633537 -0.773712 -0.001374
16.4827899933 5.6520800591 -2.5022499561 0.615457 -0.788169 -0.001371
16.4680900574 5.6411800385 -2.5013499260 0.603278 -0.797530 -0.001368
16.4570293427 5.6321501732 -2.5030601025 0.609379 -0.792878 -0.001369
16.4151000977 5.5998401642 -2.5049700737 0.636526 -0.771254 -0.001375
16.6283397675 4.9272699356 -2.4972400665 0.035367 0.999374 -0.001010
16.6314601898 4.9277901649 -2.4969398975 0.031203 0.999513 -0.001007
16.6582393646 4.9275398254 -2.4968600273 0.014865 0.999889 -0.000991
16.6724395752 4.9272599220 -2.4957799911 0.061026 0.998136 -0.001034
16.7178096771 4.9212999344 -2.4979300499 0.092452 0.995717 -0.001063
16.7262706757 4.9200301170 -2.4978399277 0.083307 0.996523 -0.001055
16.7421703339 4.9191899300 -2.4972500801 0.078785 0.996891 -0.001050
16.8023796082 4.9172000885 -2.4973700047 -0.008867 0.999960 -0.000985
16.8222904205 4.9176201820 -2.4975800514 -0.004907 0.999987 -0.000981
16.8439407349 4.9167399406 -2.4987099171 0.048051 0.998844 -0.001022
16.8764305115 4.9145898819 -2.4977500439 0.074296 0.997236 -0.001046
16.8855705261 4.9139099121 -2.4972500801 0.078785 0.996891 -0.001050
16.9172191620 4.9111099243 -2.4965898991 0.097074 0.995277 -0.001067
16.9485397339 4.9078001976 -2.4968099594 0.104070 0.994569 -0.001073
16.9645309448 4.9063301086 -2.4974300861 0.106419 0.994321 -0.001075
17.0015907288 4.9023299217 -2.4965500832 0.092452 0.995717 -0.001063
17.0095195770 4.9017300606 -2.4960598946 0.085581 0.996331 -0.001057
17.0447101593 4.8992600441 -2.4949901104 0.092452 0.995717 -0.001063
17.0604896545 4.8982601166 -2.4953999519 0.099398 0.995047 -0.001069
17.0743103027 4.8957200050 -2.4955298901 0.145143 0.989410 -0.001108
17.1028308868 4.8917098045 -2.4962499142 0.125512 0.992091 -0.001091
17.1249198914 4.8893098831 -2.4967699051 0.132811 0.991141 -0.001098
17.1396293640 4.8868699074 -2.4978001118 0.170436 0.985368 -0.001129
17.1421108246 4.8855299950 -2.4976000786 0.178186 0.983996 -0.001135
17.2060909271 4.8751101494 -2.4992399216 0.113516 0.993536 -0.001081
17.2079505920 4.8748798370 -2.4995400906 0.108776 0.994066 -0.001077
17.2446002960 4.8720002174 -2.4998600483 0.081042 0.996710 -0.001052
17.2615509033 4.8705101013 -2.4996900558 0.108776 0.994066 -0.001077
17.2679004669 4.8705501556 -2.4995000362 0.137718 0.990471 -0.001102
17.2982597351 4.8629798889 -2.4986500740 0.196558 0.980491 -0.001149
17.3344402313 4.8575501442 -2.4989700317 0.147635 0.989041 -0.001110
17.3553905487 4.8533301353 -2.4997000694 0.180786 0.983522 -0.001137
17.3731803894 4.8489499092 -2.4987199306 0.186011 0.982547 -0.001141
17.4185504913 4.8424701691 -2.4983398914 0.125512 0.992091 -0.001091
17.4569091797 4.8378601074 -2.4985699654 0.101730 0.994811 -0.001071
17.4628601074 4.8378901482 -2.4986801147 0.147635 0.989041 -0.001110
17.4653892517 4.8367099762 -2.4988100529 0.201881 0.979409 -0.001154
17.4925804138 4.8312602043 -2.4989299774 0.204554 0.978855 -0.001156
17.5047092438 4.8287301064 -2.4992599487 0.231726 0.972780 -0.001176
17.5343399048 4.8211898804 -2.4993801117 0.212622 0.977134 -0.001162
17.5821990967 4.8129601479 -2.4997000694 0.150135 0.988665 -0.001112
17.5971393585 4.8109698296 -2.4997301102 0.175594 0.984462 -0.001133
17.6091403961 4.8081998825 -2.4985499382 0.209925 0.977717 -0.001160
17.6216201782 4.8044400215 -2.4980700016 0.212622 0.977134 -0.001162
17.6708297729 4.7947402000 -2.4997999668 0.183394 0.983039 -0.001139
17.6788291931 4.7939801216 -2.5010099411 0.193909 0.981019 -0.001147
17.7002906799 4.7897400856 -2.5004398823 0.212622 0.977134 -0.001162
17.7264404297 4.7835397720 -2.5006699562 0.218041 0.975939 -0.001166
17.7404499054 4.7809300423 -2.5004799366 0.209925 0.977717 -0.001160
17.7622699738 4.7765998840 -2.5010199547 0.248404 0.968656 -0.001189
17.7823390961 4.7706499100 -2.5009400845 0.262509 0.964929 -0.001199
17.7975292206 4.7669301033 -2.5007600784 0.254023 0.967197 -0.001193
17.8134708405 4.7631998062 -2.5006899834 0.285453 0.958392 -0.001215
17.8251590729 4.7588701248 -2.5006198883 0.326641 0.945148 -0.001242
17.8449192047 4.7519898415 -2.5009400845 0.326641 0.945148 -0.001242
17.8744201660 4.7421798706 -2.5015799999 0.350710 0.936483 -0.001257
17.8825206757 4.7397999763 -2.5000500679 0.465583 0.885003 -0.001319
17.8958892822 4.7316598892 -2.5000998974 0.528668 0.848828 -0.001345
17.9104804993 4.7229900360 -2.5001299381 0.531813 0.846861 -0.001346
17.9200305939 4.7158098221 -2.4999001026 0.621510 0.783405 -0.001372
17.9312705994 4.7062201500 -2.4996399879 0.657235 0.753685 -0.001378
17.9413604736 4.6971998215 -2.5000898838 0.688930 0.724826 -0.001381
17.9510498047 4.6874699593 -2.5002601147 0.751123 0.660161 -0.001378
17.9631004333 4.6719598770 -2.5009200573 0.790530 0.612421 -0.001370
17.9711894989 4.6629099846 -2.5005500317 0.797530 0.603278 -0.001368
17.9855594635 4.6429100037 -2.5006399155 0.852716 0.522373 -0.001343
17.9885692596 4.6377902031 -2.5008699894 0.871255 0.490829 -0.001330
17.9999504089 4.6132798195 -2.4999699593 0.917945 0.396706 -0.001284
18.0023002625 4.6067099571 -2.5002000332 0.931838 0.362873 -0.001264
18.0116806030 4.5829000473 -2.4994599819 0.943059 0.332624 -0.001246
18.0171298981 4.5654201508 -2.4991300106 0.961751 0.273924 -0.001207
18.0207691193 4.5516400337 -2.4989700317 0.971447 0.237255 -0.001180
18.0259399414 4.5266900063 -2.4995400906 0.983039 0.183394 -0.001139
18.0273990631 4.5194602013 -2.4999599457 0.985368 0.170436 -0.001129
18.0316009521 4.4896597862 -2.5008399487 0.993804 0.111142 -0.001079
18.0330600739 4.4750399590 -2.5016798973 0.997858 0.065416 -0.001038
18.0334491730 4.4597101212 -2.5008399487 0.999995 -0.002938 -0.000979
18.0330600739 4.4464101791 -2.5002799034 0.998945 -0.045917 -0.001020
18.0315399170 4.4254198074 -2.4990398884 0.994811 -0.101730 -0.001071
18.0298595428 4.4116101265 -2.4995799065 0.987889 -0.155160 -0.001116
18.0244903564 4.3870100975 -2.4999499321 0.974073 -0.226229 -0.001172
18.0212306976 4.3734197617 -2.4992699623 0.969369 -0.245605 -0.001186
18.0176696777 4.3597598076 -2.5007200241 0.952066 -0.305890 -0.001228
18.0144500732 4.3512201309 -2.5013599396 0.924466 -0.381263 -0.001275
18.0090198517 4.3394598961 -2.5024900436 0.897798 -0.440405 -0.001307
18.0007190704 4.3236498833 -2.5027201176 0.881656 -0.471891 -0.001322
17.9960498810 4.3149499893 -2.5038399696 0.867668 -0.497143 -0.001333
17.9855709076 4.2991600037 -2.5032799244 0.822094 -0.569351 -0.001359
17.9791297913 4.2909898758 -2.5016999245 0.806665 -0.591008 -0.001365
17.9697093964 4.2776598930 -2.5019099712 0.802126 -0.597153 -0.001366
17.9624004364 4.2690000534 -2.5010399818 0.743362 -0.668888 -0.001379
17.9571495056 4.2638502121 -2.4996600151 0.708486 -0.705724 -0.001381
17.9469299316 4.2538299561 -2.4993700981 0.671779 -0.740750 -0.001379
17.9365997314 4.2449398041 -2.5004799366 0.654300 -0.756234 -0.001377
17.9156799316 4.2268199921 -2.5039999485 0.642481 -0.766300 -0.001376
17.8955402374 4.2103800774 -2.5052099228 0.633537 -0.773712 -0.001374
17.8823890686 4.1987700462 -2.5027101040 0.636526 -0.771254 -0.001375
17.8717403412 4.1909599304 -2.5009200573 0.618487 -0.785794 -0.001371
17.8329391479 4.1586699486 -2.5031399727 0.645448 -0.763803 -0.001376
17.8243904114 4.1499099731 -2.5037400723 0.645448 -0.763803 -0.001376
17.7976703644 4.1281399727 -2.5032598972 0.633537 -0.773712 -0.001374
17.7823600769 4.1156702042 -2.5030701160 0.633537 -0.773712 -0.001374
17.7666301727 4.1027998924 -2.5022699833 0.627537 -0.778585 -0.001373
17.7473392487 4.0874800682 -2.5027899742 0.618487 -0.785794 -0.001371
17.7332305908 4.0777301788 -2.5032899380 0.624527 -0.781002 -0.001373
17.7044506073 4.0537400246 -2.5044000149 0.651358 -0.758770 -0.001377
17.6903095245 4.0412201881 -2.5035099983 0.639507 -0.768784 -0.001375
17.6767292023 4.0307297707 -2.5029199123 0.621510 -0.783405 -0.001372
17.6572608948 4.0152101517 -2.5026299953 0.627537 -0.778585 -0.001373
17.6397800446 4.0008201599 -2.5022299290 0.624527 -0.781002 -0.001373
17.6305503845 3.9935998917 -2.5017399788 0.606331 -0.795211 -0.001369
17.6088008881 3.9776599407 -2.5022499561 0.597153 -0.802126 -0.001366
17.5968704224 3.9685900211 -2.5021600723 0.603278 -0.797530 -0.001368
17.5781192780 3.9542899132 -2.5023601055 0.600218 -0.799835 -0.001367
17.5733394623 3.9506299496 -2.5023701191 0.594083 -0.804402 -0.001366
17.5198001862 3.9100999832 -2.5021800995 0.663079 -0.748548 -0.001379
17.5011596680 3.8947899342 -2.5025000572 0.534955 -0.844879 -0.001347
17.4889297485 3.8862700462 -2.5028998852 0.553762 -0.832674 -0.001354
17.4315795898 3.8434100151 -2.5029199123 0.603278 -0.797530 -0.001368
17.4241104126 3.8377499580 -2.5018200874 0.600218 -0.799835 -0.001367
17.4151706696 3.8307800293 -2.5016300678 0.603278 -0.797530 -0.001368
17.3824806213 3.8069200516 -2.5011401176 0.600218 -0.799835 -0.001367
17.3753108978 3.8007500172 -2.5006499290 0.591008 -0.806665 -0.001365
17.3591995239 3.7882800102 -2.5006499290 0.569351 -0.822094 -0.001359
17.3286991119 3.7705900669 -2.5004599094 0.541234 -0.840871 -0.001350
17.3080196381 3.7566399574 -2.5002698898 0.566240 -0.824239 -0.001358
17.2619304657 3.7216799259 -2.5010800362 0.587928 -0.808912 -0.001364
17.2406597137 3.7048199177 -2.5008900166 0.597153 -0.802126 -0.001366
17.1971797943 3.6812100410 -2.5014998913 0.550634 -0.834745 -0.001353
17.1540603638 3.6506299973 -2.5009100437 0.563126 -0.826370 -0.001357
17.1274108887 3.6331300735 -2.5015199184 0.553762 -0.832674 -0.001354
17.1223697662 3.6306500435 -2.5017199516 0.553762 -0.832674 -0.001354
17.0784893036 3.5999100208 -2.5008299351 0.550634 -0.834745 -0.001353
17.0699005127 3.5949399471 -2.5010399818 0.525521 -0.850780 -0.001344
17.0543193817 3.5846400261 -2.5018401146 0.531813 -0.846861 -0.001346
17.0255298615 3.5668699741 -2.5023500919 0.519223 -0.854638 -0.001342
17.0222606659 3.5647499561 -2.5022499561 0.516071 -0.856545 -0.001340
16.9914207458 3.5465800762 -2.5023500919 0.522373 -0.852716 -0.001343
16.9763603210 3.5372200012 -2.5025599003 0.522373 -0.852716 -0.001343
16.9667091370 3.5307800770 -2.5031599998 0.519223 -0.854638 -0.001342
16.9544296265 3.5241398811 -2.5034599304 0.512919 -0.858436 -0.001339
17.0870800018 2.8519198895 -2.4969100952 0.186011 0.982547 -0.001141
17.0976390839 2.8502500057 -2.4964098930 0.178186 0.983996 -0.001135
17.1229705811 2.8457899094 -2.4968400002 0.173011 0.984919 -0.001131
17.1444606781 2.8420500755 -2.4970600605 0.180786 0.983522 -0.001137
17.1702709198 2.8369801044 -2.4976899624 0.188635 0.982047 -0.001143
17.1942806244 2.8324499130 -2.4980099201 0.193909 0.981019 -0.001147
17.2061805725 2.8300900459 -2.4989299774 0.215328 0.976541 -0.001164
17.2273101807 2.8250699043 -2.4987499714 0.212622 0.977134 -0.001162
17.2482891083 2.8209800720 -2.4986701012 0.188635 0.982047 -0.001143
17.2714500427 2.8168799877 -2.4981899261 0.183394 0.983039 -0.001139
17.3031902313 2.8104100227 -2.4980199337 0.186011 0.982547 -0.001141
17.3079490662 2.8097898960 -2.4975199699 0.180786 0.983522 -0.001137
17.3375396729 2.8052599430 -2.4973299503 0.145143 0.989410 -0.001108
17.3715991974 2.7994999886 -2.4977800846 0.191268 0.981537 -0.001145
17.3850898743 2.7966101170 -2.4962999821 0.209925 0.977717 -0.001160
17.4124908447 2.7904999256 -2.4966299534 0.212622 0.977134 -0.001162
17.4353599548 2.7857999802 -2.4970600605 0.237255 0.971447 -0.001180
17.4744396210 2.7751500607 -2.4983999729 0.220763 0.975327 -0.001168
17.4775695801 2.7746698856 -2.4988100529 0.234487 0.972119 -0.001178
17.5074195862 2.7687299252 -2.4988200665 0.199215 0.979955 -0.001152
17.5401191711 2.7613101006 -2.4992599487 0.220763 0.975327 -0.001168
17.5464897156 2.7603199482 -2.4992699623 0.223492 0.974705 -0.001170
17.5749702454 2.7534399033 -2.4991099834 0.237255 0.971447 -0.001180
17.5970592499 2.7481999397 -2.4993400574 0.268202 0.963362 -0.001203
17.5998001099 2.7466800213 -2.4989500046 0.279674 0.960094 -0.001211
17.6527996063 2.7289099693 -2.4993999004 0.259673 0.965696 -0.001197
17.6762199402 2.7230699062 -2.5001199245 0.242814 0.970072 -0.001184
17.7238903046 2.7136600018 -2.5011498928 0.178186 0.983996 -0.001135
17.7353897095 2.7101199627 -2.4997999668 0.297091 0.954848 -0.001223
17.7498893738 2.7048599720 -2.4992198944 0.291258 0.956644 -0.001219
17.7804698944 2.6957199574 -2.4998500347 0.276796 0.960928 -0.001209
17.8038806915 2.6891899109 -2.4997699261 0.273924 0.961751 -0.001207
17.8218803406 2.6839098930 -2.4997999668 0.288352 0.957524 -0.001217
17.8312892914 2.6797399521 -2.4994199276 0.300017 0.953933 -0.001225
17.8862590790 2.6636199951 -2.4985599518 0.256844 0.966452 -0.001195
17.9153804779 2.6562600136 -2.4983799458 0.231726 0.972780 -0.001176
17.9331703186 2.6524500847 -2.4985001087 0.245605 0.969369 -0.001186
17.9348201752 2.6519799232 -2.4981300831 0.297091 0.954848 -0.001223
17.9467792511 2.6474499702 -2.4982600212 0.344659 0.938727 -0.001253
17.9753894806 2.6366899014 -2.4983899593 0.335625 0.941995 -0.001248
17.9926300049 2.6305899620 -2.4987099171 0.317711 0.948187 -0.001236
18.0337505341 2.6178500652 -2.5000400543 0.285453 0.958392 -0.001215
18.0563507080 2.6112399101 -2.4998700619 0.288352 0.957524 -0.001217
18.0664997101 2.6093099117 -2.4995799065 0.288352 0.957524 -0.001217
18.0943298340 2.5992100239 -2.5002200603 0.320681 0.947186 -0.001238
18.1054401398 2.5953099728 -2.4997398853 0.323658 0.946173 -0.001240
18.1331405640 2.5865900517 -2.4997699261 0.320681 0.947186 -0.001238
18.1450290680 2.5822699070 -2.5007901192 0.350710 0.936483 -0.001257
18.1713905334 2.5720300674 -2.5010299683 0.347682 0.937612 -0.001255
18.1911106110 2.5650799274 -2.5010399818 0.335625 0.941995 -0.001248
18.2158908844 2.5566298962 -2.5008800030 0.341642 0.939829 -0.001251
18.2316703796 2.5506200790 -2.5002999306 0.350710 0.936483 -0.001257
18.2559299469 2.5416400433 -2.4997301102 0.347682 0.937612 -0.001255
18.2674407959 2.5376698971 -2.4999599457 0.381263 0.924466 -0.001275
18.2739505768 2.5345900059 -2.4997799397 0.415362 0.909655 -0.001294
18.2933807373 2.5255498886 -2.4994199276 0.434129 0.900850 -0.001304
18.3145904541 2.5150198936 -2.5009601116 0.462431 0.886654 -0.001317
18.3201808929 2.5123898983 -2.5013999939 0.519223 0.854638 -0.001342
18.3283805847 2.5062398911 -2.5013399124 0.569351 0.822094 -0.001359
18.3430995941 2.4959700108 -2.5010800362 0.591008 0.806665 -0.001365
18.3591003418 2.4833600521 -2.5009400845 0.642481 0.766300 -0.001376
18.3656902313 2.4781899452 -2.5000700951 0.663079 0.748548 -0.001379
18.3832302094 2.4611001015 -2.5002601147 0.740750 0.671779 -0.001379
18.3859195709 2.4584300518 -2.5002799034 0.753685 0.657235 -0.001378
18.3984909058 2.4420499802 -2.5000700951 0.819933 0.572458 -0.001360
18.4034996033 2.4343299866 -2.4994099140 0.846861 0.531813 -0.001346
18.4167194366 2.4109699726 -2.5000000000 0.881656 0.471891 -0.001322
18.4241199493 2.3969500065 -2.5004398823 0.893111 0.449834 -0.001311
18.4297103882 2.3855500221 -2.5010900497 0.920595 0.390517 -0.001280
18.4357700348 2.3669700623 -2.5036799908 0.954848 0.297091 -0.001223
18.4383296967 2.3583800793 -2.5032100677 0.961751 0.273924 -0.001207
18.4445705414 2.3333899975 -2.5015900135 0.978855 0.204554 -0.001156
18.4467296600 2.3204600811 -2.5009300709 0.986665 0.162760 -0.001122
18.4500904083 2.2976999283 -2.5010800362 0.991465 0.130369 -0.001096
18.4514503479 2.2863600254 -2.5005099773 0.993536 0.113516 -0.001081
18.4544200897 2.2547600269 -2.5009999275 0.999040 0.043791 -0.001018
18.4548797607 2.2444601059 -2.5008199215 0.999821 0.018902 -0.000995
18.4543399811 2.2274899483 -2.5000801086 0.999298 -0.037461 -0.001012
18.4534091949 2.2079000473 -2.5006299019 0.995927 -0.090153 -0.001061
18.4519405365 2.1959500313 -2.5016798973 0.988281 -0.152643 -0.001114
18.4471302032 2.1735699177 -2.5021500587 0.970765 -0.240031 -0.001182
18.4441394806 2.1617500782 -2.5028700829 0.963362 -0.268202 -0.001203
18.4378395081 2.1426100731 -2.5023300648 0.937612 -0.347682 -0.001255
18.4352092743 2.1360700130 -2.5025498867 0.929435 -0.368984 -0.001268
18.4264392853 2.1161201000 -2.5018999577 0.900850 -0.434129 -0.001304
18.4219894409 2.1068799496 -2.5018100739 0.891519 -0.452981 -0.001313
18.4130096436 2.0910799503 -2.5016500950 0.854638 -0.519223 -0.001342
18.4072895050 2.0819799900 -2.5015799999 0.828486 -0.560008 -0.001356
18.3978404999 2.0693600178 -2.5016100407 0.792878 -0.609379 -0.001369
18.3922996521 2.0622100830 -2.5014200211 0.763803 -0.645448 -0.001376
18.3782501221 2.0472700596 -2.5014400482 0.740750 -0.671779 -0.001379
18.3656902313 2.0332698822 -2.5017600060 0.727510 -0.686096 -0.001380
18.3592796326 2.0265800953 -2.5021800995 0.671779 -0.740750 -0.001379
18.3467502594 2.0170700550 -2.5009999275 0.609379 -0.792878 -0.001369
18.3339691162 2.0077500343 -2.5006000996 0.584843 -0.811146 -0.001363
18.3230304718 1.9998899698 -2.5014100075 0.560008 -0.828486 -0.001356
18.3007392883 1.9859800339 -2.5015199184 0.544370 -0.838844 -0.001351
18.2752990723 1.9680099487 -2.5017199516 0.575560 -0.817758 -0.001361
18.2576293945 1.9567799568 -2.5022299290 0.538096 -0.842882 -0.001349
18.2478904724 1.9504499435 -2.5023300648 0.531813 -0.846861 -0.001346
18.2163906097 1.9310899973 -2.5021400452 0.531813 -0.846861 -0.001346
18.2079391479 1.9244799614 -2.5022399426 0.538096 -0.842882 -0.001349
18.1727199554 1.9025900364 -2.5025498867 0.528668 -0.848828 -0.001345
18.1622009277 1.8959800005 -2.5025498867 0.531813 -0.846861 -0.001346
18.1420898438 1.8833800554 -2.5025498867 0.534955 -0.844879 -0.001347
18.1183490753 1.8679599762 -2.5023601055 0.519223 -0.854638 -0.001342
18.1032905579 1.8599100113 -2.5013599396 0.519223 -0.854638 -0.001342
18.0830402374 1.8478399515 -2.5004699230 0.522373 -0.852716 -0.001343
18.0619106293 1.8346600533 -2.4981698990 0.525521 -0.850780 -0.001344
18.0428905487 1.8229800463 -2.4996700287 0.528668 -0.848828 -0.001345
18.0164909363 1.8062499762 -2.5011799335 0.534955 -0.844879 -0.001347
18.0003795624 1.7960699797 -2.5016798973 0.525521 -0.850780 -0.001344
17.9902305603 1.7900099754 -2.5015900135 0.512919 -0.858436 -0.001339
17.9653205872 1.7755199671 -2.5016899109 0.509765 -0.860313 -0.001338
17.9479503632 1.7654900551 -2.5016899109 0.519223 -0.854638 -0.001342
17.9371109009 1.7584600449 -2.5024900436 0.525521 -0.850780 -0.001344
17.9192504883 1.7460500002 -2.5027999878 0.534955 -0.844879 -0.001347
17.9093093872 1.7405600548 -2.5037999153 0.500299 -0.865851 -0.001334
17.8920307159 1.7306200266 -2.5035998821 0.493986 -0.869469 -0.001331
17.8905906677 1.7293000221 -2.5032100677 0.493986 -0.869469 -0.001331
17.8743190765 1.7219400406 -2.5021100044 0.427862 -0.903843 -0.001300
17.8305091858 1.6992100477 -2.5020101070 0.481358 -0.876523 -0.001326
17.8247108459 1.6949900389 -2.5022099018 0.493986 -0.869469 -0.001331
17.7774505615 1.6681400537 -2.5030100346 0.512919 -0.858436 -0.001339
17.7766094208 1.6664999723 -2.5028200150 0.512919 -0.858436 -0.001339
17.7474899292 1.6485400200 -2.5024199486 0.481358 -0.876523 -0.001326
17.7376194000 1.6437900066 -2.5036199093 0.443546 -0.896251 -0.001308
17.7216205597 1.6359499693 -2.5039200783 0.443546 -0.896251 -0.001308
17.6879901886 1.6191999912 -2.5033199787 0.459279 -0.888291 -0.001316
17.6685600281 1.6092900038 -2.5031299591 0.471891 -0.881656 -0.001322
17.6305198669 1.5879299641 -2.5044300556 0.500299 -0.865851 -0.001334
17.6135501862 1.5779600143 -2.5041298866 0.500299 -0.865851 -0.001334
17.6024093628 1.5716199875 -2.5025300980 0.475046 -0.879960 -0.001323
17.5985794067 1.5693900585 -2.5020298958 0.459279 -0.888291 -0.001316
17.5773906708 1.5594300032 -2.5015299320 0.437266 -0.899331 -0.001305
17.5555591583 1.5483100414 -2.5017399788 0.449834 -0.893111 -0.001311
17.5278091431 1.5347800255 -2.5020399094 0.443546 -0.896251 -0.001308
17.5225791931 1.5319900513 -2.5024399757 0.443546 -0.896251 -0.001308
17.4938907623 1.5178099871 -2.5028400421 0.440405 -0.897798 -0.001307
17.4787597656 1.5104000568 -2.5027399063 0.430994 -0.902354 -0.001302
17.4421100616 1.4936000109 -2.5019400120 0.430994 -0.902354 -0.001302
17.4362792969 1.4910700321 -2.5020399094 0.437266 -0.899331 -0.001305
17.4040203094 1.4747099876 -2.5028400421 0.440405 -0.897798 -0.001307
17.3933696747 1.4693299532 -2.5027399063 0.427862 -0.903843 -0.001300
17.3548507690 1.4517799616 -2.5024399757 0.440405 -0.897798 -0.001307
17.3523902893 1.4503999949 -2.5014400482 0.406019 -0.913864 -0.001289
17.3115406036 1.4329299927 -2.5039300919 0.396706 -0.917945 -0.001284
17.2779197693 1.4160300493 -2.5064299107 0.402911 -0.915238 -0.001287
17.3523998260 0.7090100050 -2.4986898899 0.178186 0.983996 -0.001135
17.4004001617 0.7006199956 -2.4978098869 0.104070 0.994569 -0.001073
17.4291591644 0.6931800246 -2.4997899532 0.248404 0.968656 -0.001189
17.5638103485 0.6293299794 -2.4995698929 0.231726 0.972780 -0.001176
17.6456508636 0.6133999825 -2.5006799698 0.317711 0.948187 -0.001236
17.6985797882 0.5999799967 -2.4993400574 0.317711 0.948187 -0.001236
17.7176990509 0.5926300287 -2.4989800453 0.356781 0.934187 -0.001261
17.7462902069 0.5816699862 -2.4988999367 0.338631 0.940919 -0.001250
17.7728805542 0.5729399920 -2.4997398853 0.344659 0.938727 -0.001253
17.7972507477 0.5602700114 -2.4992198944 0.452981 0.891519 -0.001313
17.8842792511 0.5254200101 -2.5003600121 0.282560 0.959249 -0.001213
17.9361896515 0.5047600269 -2.4982900620 0.421606 0.906778 -0.001297
17.9574298859 0.4952200055 -2.4978001118 0.387428 0.921899 -0.001279
17.9997901917 0.4794200063 -2.4961299896 0.347682 0.937612 -0.001255
18.0145397186 0.4738700092 -2.4967598915 0.368984 0.929435 -0.001268
18.0366992950 0.4645099938 -2.4991900921 0.378186 0.925729 -0.001273
18.0647602081 0.4533199966 -2.4987199306 0.368984 0.929435 -0.001268
18.0816402435 0.4466600120 -2.4984600544 0.390517 0.920595 -0.001280
18.0901908875 0.4411399961 -2.4986100197 0.478202 0.878249 -0.001325
18.1324501038 0.4202899933 -2.4976398945 0.424733 0.905318 -0.001299
18.1530609131 0.4116899967 -2.4965600967 0.409130 0.912475 -0.001291
18.1963806152 0.3923900127 -2.4975199699 0.399807 0.916599 -0.001286
18.2159595490 0.3848299980 -2.4987699986 0.456129 0.889912 -0.001314
18.2606391907 0.3634000123 -2.4972200394 0.427862 0.903843 -0.001300
18.2814407349 0.3541800082 -2.4972400665 0.421606 0.906778 -0.001297
18.2960300446 0.3467699885 -2.4968700409 0.446689 0.894688 -0.001310
18.3092594147 0.3404299915 -2.4964900017 0.443546 0.896251 -0.001308
18.3437194824 0.3231300116 -2.4961400032 0.443546 0.896251 -0.001308
18.3605308533 0.3151200116 -2.4971599579 0.437266 0.899331 -0.001305
18.3949394226 0.2987099886 -2.4977200031 0.462431 0.886654 -0.001317
18.4048404694 0.2935700119 -2.4960401058 0.471891 0.881656 -0.001322
18.4244308472 0.2819699943 -2.4966800213 0.493986 0.869469 -0.001331
18.4420604706 0.2723000050 -2.4967999458 0.484515 0.874782 -0.001327
18.4794406891 0.2523100078 -2.4962599277 0.490829 0.871255 -0.001330
18.4918193817 0.2453099936 -2.4962000847 0.531813 0.846861 -0.001346
18.5169105530 0.2239599973 -2.4976599216 0.697373 0.716707 -0.001381
18.5399799347 0.1975899935 -2.4993999004 0.802126 0.597153 -0.001366
18.5528297424 0.1784500033 -2.4989800453 0.852716 0.522373 -0.001343
18.5692291260 0.1476400048 -2.4981999397 0.905318 0.424733 -0.001299
18.5811405182 0.1244700029 -2.4977300167 0.896251 0.443546 -0.001308
18.5888595581 0.0959900022 -2.4971001148 0.969369 0.245605 -0.001186
18.5913696289 0.0815400034 -2.4976499081 0.980491 0.196558 -0.001149
18.5954608917 0.0619399995 -2.4988999367 0.987489 0.157685 -0.001118
18.5975093842 0.0270700008 -2.5014100075 0.998513 0.054502 -0.001028
18.5987205505 0.0057000001 -2.5014801025 0.999821 -0.018902 -0.000995
18.5971908569 -0.0122199999 -2.5005300045 0.996891 -0.078785 -0.001050
18.5959205627 -0.0270300005 -2.5018599033 0.995717 -0.092452 -0.001063
18.5705509186 0.1297200024 -5.4987602234 0.926978 0.375114 -0.001272
18.5665493011 0.1387200058 -5.4983401299 0.920595 0.390517 -0.001280
18.5567893982 0.1594900042 -5.5011501312 0.885003 0.465583 -0.001319
18.5503997803 0.1711400002 -5.5035099983 0.862174 0.506611 -0.001337
18.5357208252 0.1932300031 -5.5021100044 0.811146 0.584843 -0.001363
18.5225696564 0.2126899958 -5.4981698990 0.804402 0.594083 -0.001366
18.5134391785 0.2215400040 -5.4968500137 0.691755 0.722131 -0.001381
18.4998893738 0.2330999970 -5.4977798462 0.612421 0.790530 -0.001370
18.4831504822 0.2447499931 -5.4971098900 0.544370 0.838844 -0.001351
18.4557704926 0.2608799934 -5.4971399307 0.503455 0.864020 -0.001335
18.4357700348 0.2725000083 -5.4972901344 0.468736 0.883337 -0.001320
18.4094696045 0.2852100134 -5.4968400002 0.446689 0.894688 -0.001310
18.4024105072 0.2888900042 -5.4969301224 0.449834 0.893111 -0.001311
18.3717994690 0.3044900000 -5.4967899323 0.452981 0.891519 -0.001313
18.3573703766 0.3116500080 -5.4970698357 0.446689 0.894688 -0.001310
18.3254604340 0.3278000057 -5.4984197617 0.434129 0.900850 -0.001304
18.3104305267 0.3342800140 -5.4991998672 0.437266 0.899331 -0.001305
18.2836303711 0.3469200134 -5.4992599487 0.437266 0.899331 -0.001305
18.2493801117 0.3640800118 -5.5000200272 0.452981 0.891519 -0.001313
18.2325000763 0.3727200031 -5.5000000000 0.449834 0.893111 -0.001311
18.2166194916 0.3805499971 -5.5007600784 0.427862 0.903843 -0.001300
18.1875991821 0.3934600055 -5.4991202354 0.409130 0.912475 -0.001291
18.1750507355 0.3989999890 -5.4990000725 0.412244 0.911072 -0.001292
18.1704292297 0.4009099901 -5.4993901253 0.406019 0.913864 -0.001289
18.1315593719 0.4188300073 -5.5006499290 0.421606 0.906778 -0.001297
18.1144599915 0.4269300103 -5.5010199547 0.409130 0.912475 -0.001291
18.0995998383 0.4332000017 -5.5011801720 0.384343 0.923189 -0.001277
18.0737895966 0.4437800050 -5.4997601509 0.399807 0.916599 -0.001286
18.0471706390 0.4560500085 -5.4978299141 0.412244 0.911072 -0.001292
18.0172290802 0.4690299928 -5.4977798462 0.387428 0.921899 -0.001279
18.0017604828 0.4755100012 -5.4966602325 0.393609 0.919277 -0.001282
17.9868602753 0.4815100133 -5.4964399338 0.390517 0.920595 -0.001280
17.9560508728 0.4950299859 -5.4958000183 0.396706 0.917945 -0.001284
17.9337806702 0.5044900179 -5.4959697723 0.390517 0.920595 -0.001280
17.9100494385 0.5146300197 -5.4951400757 0.396706 0.917945 -0.001284
17.8840503693 0.5259799957 -5.4958000183 0.390517 0.920595 -0.001280
17.8683605194 0.5325400233 -5.4967699051 0.362873 0.931838 -0.001264
17.8434391022 0.5415499806 -5.4978399277 0.353743 0.935342 -0.001259
17.8294696808 0.5467299819 -5.4979200363 0.359825 0.933019 -0.001263
17.8034305573 0.5572400093 -5.4984898567 0.356781 0.934187 -0.001261
17.7847099304 0.5640100241 -5.4985599518 0.341642 0.939829 -0.001251
17.7530307770 0.5756099820 -5.4986200333 0.350710 0.936483 -0.001257
17.7430305481 0.5798900127 -5.4994101524 0.356781 0.934187 -0.001261
17.7010402679 0.5960100293 -5.4995598793 0.353743 0.935342 -0.001259
17.6927700043 0.5994300246 -5.4994502068 0.350710 0.936483 -0.001257
17.6557693481 0.6128299832 -5.4980998039 0.338631 0.940919 -0.001250
17.6451606750 0.6164900064 -5.4967799187 0.332624 0.943059 -0.001246
17.6172008514 0.6266599894 -5.4968500137 0.329630 0.944109 -0.001244
17.6044998169 0.6305900216 -5.4981298447 0.320681 0.947186 -0.001238
17.5659408569 0.6433500051 -5.4985899925 0.326641 0.945148 -0.001242
17.5595703125 0.6459100246 -5.4989800453 0.326641 0.945148 -0.001242
17.5287303925 0.6567900181 -5.4975399971 0.320681 0.947186 -0.001238
17.5035800934 0.6650400162 -5.4970998764 0.308835 0.951115 -0.001230
17.4904308319 0.6691399813 -5.4977898598 0.302950 0.953006 -0.001227
17.4677295685 0.6764000058 -5.4985499382 0.282560 0.959249 -0.001213
17.4262199402 0.6892799735 -5.4997401237 0.359825 0.933019 -0.001263
17.4198894501 0.6909700036 -5.5013198853 0.347682 0.937612 -0.001255
17.3161792755 1.4372700453 -5.5000300407 0.412244 -0.911072 -0.001292
17.3577709198 1.4554699659 -5.5010299683 0.381263 -0.924466 -0.001275
17.3747406006 1.4659899473 -5.5011301041 0.493986 -0.869469 -0.001331
17.4190692902 1.4878799915 -5.5012297630 0.409130 -0.912475 -0.001291
17.4456596375 1.4976099730 -5.5020298958 0.490829 -0.871255 -0.001330
17.4846897125 1.5176999569 -5.5014300346 0.434129 -0.900850 -0.001304
17.4967594147 1.5234899521 -5.5013298988 0.427862 -0.903843 -0.001300
17.5240707397 1.5354599953 -5.5009298325 0.396706 -0.917945 -0.001284
17.5411796570 1.5429300070 -5.5017299652 0.424733 -0.905318 -0.001299
17.5544700623 1.5495799780 -5.5025300980 0.468736 -0.883337 -0.001320
17.5710906982 1.5588899851 -5.5040302277 0.484515 -0.874782 -0.001327
17.5922794342 1.5705800056 -5.5034298897 0.471891 -0.881656 -0.001322
17.6418800354 1.5950299501 -5.5030298233 0.456129 -0.889912 -0.001314
17.6450099945 1.5956200361 -5.5024299622 0.471891 -0.881656 -0.001322
17.6750297546 1.6143599749 -5.5036201477 0.500299 -0.865851 -0.001334
17.7352600098 1.6470799446 -5.5031199455 0.446689 -0.894688 -0.001310
17.7721004486 1.6689100266 -5.5022001266 0.591008 -0.806665 -0.001365
17.8586902618 1.7221599817 -5.5022897720 0.430994 -0.902354 -0.001302
17.9121208191 1.7448500395 -5.5019001961 0.506611 -0.862174 -0.001337
17.9398097992 1.7603600025 -5.5020999908 0.475046 -0.879960 -0.001323
17.9702491760 1.7859200239 -5.5027699471 0.609379 -0.792878 -0.001369
18.0718402863 1.8430099487 -5.5019698143 0.384343 -0.923189 -0.001277
18.1271095276 1.8804800510 -5.5021500587 0.544370 -0.838844 -0.001351
18.1435108185 1.8904700279 -5.5017499924 0.534955 -0.844879 -0.001347
18.1788101196 1.9100199938 -5.5011401176 0.503455 -0.864020 -0.001335
18.1831607819 1.9129600525 -5.5015401840 0.544370 -0.838844 -0.001351
18.2002601624 1.9244799614 -5.5015301704 0.550634 -0.834745 -0.001353
18.2230091095 1.9390900135 -5.5014300346 0.547504 -0.836802 -0.001352
18.2360401154 1.9477100372 -5.5021200180 0.563126 -0.826370 -0.001357
18.2537097931 1.9601399899 -5.5029201508 0.569351 -0.822094 -0.001359
18.2700290680 1.9710400105 -5.5030097961 0.566240 -0.824239 -0.001358
18.3036594391 1.9938800335 -5.5028100014 0.544370 -0.838844 -0.001351
18.3139400482 2.0002300739 -5.5023999214 0.547504 -0.836802 -0.001352
18.3374691010 2.0145499706 -5.5018000603 0.531813 -0.846861 -0.001346
18.3428401947 2.0180499554 -5.5014901161 0.584843 -0.811146 -0.001363
18.3479003906 2.0220999718 -5.4960799217 0.648407 -0.761293 -0.001377
18.3627605438 2.0366299152 -5.4932599068 0.700167 -0.713977 -0.001381
18.3681793213 2.0412600040 -5.4959502220 0.708486 -0.705724 -0.001381
18.3818607330 2.0556099415 -5.5002298355 0.751123 -0.660161 -0.001378
18.3859901428 2.0605099201 -5.5020198822 0.768784 -0.639507 -0.001375
18.3991909027 2.0777199268 -5.5033898354 0.808912 -0.587928 -0.001364
18.4039897919 2.0835900307 -5.5034799576 0.822094 -0.569351 -0.001359
